ply
format ascii 1.0
comment Created by Open3D
element vertex 387
property double x
property double y
property double z
property uchar red
property uchar green
property uchar blue
end_header
-292.946 -218.885 107.265 0 0 0
-292.993 -218.762 107.123 0 0 0
-293.077 -218.68 107.031 0 0 0
-293.066 -218.669 107.042 0 0 0
-293.049 -218.676 107.029 0 0 0
-293.054 -218.671 107.039 0 0 0
-293.066 -218.665 107.055 0 0 0
-293.06 -218.685 107.052 0 0 0
-293.05 -218.682 107.042 0 0 0
-293.054 -218.659 107.026 0 0 0
-293.052 -218.674 107.036 0 0 0
-293.042 -218.685 107.03 0 0 0
-293.053 -218.674 107.037 0 0 0
-293.054 -218.666 107.033 0 0 0
-293.055 -218.673 107.035 0 0 0
-293.051 -218.67 107.034 0 0 0
-293.045 -218.667 107.019 0 0 0
-293.044 -218.681 107.038 0 0 0
-293.048 -218.672 107.022 0 0 0
-293.043 -218.669 107.023 0 0 0
-293.06 -218.663 107.035 0 0 0
-293.038 -218.684 107.029 0 0 0
-293.047 -218.688 107.042 0 0 0
-293.042 -218.682 107.029 0 0 0
-293.053 -218.68 107.04 0 0 0
-293.051 -218.671 107.034 0 0 0
-293.057 -218.675 107.039 0 0 0
-293.043 -218.67 107.016 0 0 0
-293.051 -218.677 107.039 0 0 0
-293.038 -218.668 107.01 0 0 0
-293.051 -218.674 107.034 0 0 0
-293.048 -218.677 107.027 0 0 0
-293.043 -218.675 107.032 0 0 0
-293.05 -218.678 107.038 0 0 0
-293.042 -218.673 107.02 0 0 0
-293.039 -218.678 107.031 0 0 0
-293.058 -218.685 107.038 0 0 0
-293.038 -218.677 107.02 0 0 0
-293.055 -218.669 107.027 0 0 0
-293.037 -218.676 107.022 0 0 0
-293.063 -218.665 107.041 0 0 0
-293.058 -218.665 107.025 0 0 0
-293.064 -218.664 107.04 0 0 0
-293.039 -218.671 107.014 0 0 0
-293.041 -218.673 107.022 0 0 0
-293.059 -218.663 107.029 0 0 0
-293.065 -218.665 107.042 0 0 0
-293.046 -218.661 107.026 0 0 0
-293.053 -218.676 107.038 0 0 0
-293.05 -218.676 107.039 0 0 0
-293.038 -218.671 107.019 0 0 0
-293.05 -218.669 107.035 0 0 0
-293.042 -218.684 107.033 0 0 0
-293.039 -218.673 107.021 0 0 0
-293.056 -218.685 107.047 0 0 0
-293.048 -218.688 107.036 0 0 0
-293.063 -218.665 107.04 0 0 0
-293.059 -218.669 107.035 0 0 0
-293.054 -218.687 107.06 0 0 0
-293.055 -218.668 107.032 0 0 0
-293.062 -218.675 107.048 0 0 0
-293.051 -218.66 107.024 0 0 0
-293.051 -218.676 107.025 0 0 0
-293.042 -218.694 107.042 0 0 0
-293.053 -218.666 107.028 0 0 0
-293.058 -218.675 107.036 0 0 0
-293.049 -218.671 107.031 0 0 0
-293.05 -218.681 107.042 0 0 0
-293.052 -218.676 107.035 0 0 0
-293.054 -218.676 107.032 0 0 0
-293.043 -218.668 107.025 0 0 0
-293.059 -218.679 107.035 0 0 0
-293.05 -218.672 107.028 0 0 0
-293.054 -218.666 107.035 0 0 0
-293.042 -218.67 107.027 0 0 0
-293.049 -218.685 107.048 0 0 0
-293.053 -218.669 107.024 0 0 0
-293.047 -218.671 107.03 0 0 0
-293.047 -218.685 107.023 0 0 0
-293.045 -218.679 107.036 0 0 0
-293.036 -218.684 107.031 0 0 0
-293.061 -218.675 107.048 0 0 0
-293.046 -218.667 107.027 0 0 0
-293.059 -218.661 107.04 0 0 0
-293.048 -218.678 107.04 0 0 0
-293.049 -218.673 107.03 0 0 0
-293.06 -218.678 107.046 0 0 0
-293.048 -218.679 107.031 0 0 0
-293.065 -218.658 107.041 0 0 0
-293.05 -218.672 107.031 0 0 0
-293.056 -218.666 107.037 0 0 0
-293.048 -218.678 107.04 0 0 0
-293.047 -218.663 107.02 0 0 0
-293.056 -218.671 107.03 0 0 0
-293.048 -218.673 107.031 0 0 0
-293.043 -218.673 107.028 0 0 0
-293.054 -218.681 107.044 0 0 0
-293.047 -218.673 107.035 0 0 0
-293.052 -218.665 107.031 0 0 0
-293.05 -218.669 107.034 0 0 0
-293.058 -218.669 107.039 0 0 0
-293.058 -218.668 107.034 0 0 0
-293.046 -218.674 107.018 0 0 0
-293.052 -218.669 107.037 0 0 0
-293.05 -218.668 107.031 0 0 0
-293.054 -218.668 107.041 0 0 0
-293.05 -218.669 107.022 0 0 0
-293.055 -218.676 107.044 0 0 0
-293.048 -218.671 107.038 0 0 0
-293.055 -218.68 107.042 0 0 0
-293.058 -218.668 107.037 0 0 0
-293.052 -218.668 107.021 0 0 0
-293.039 -218.667 107.019 0 0 0
-293.051 -218.673 107.027 0 0 0
-293.059 -218.678 107.043 0 0 0
-293.037 -218.676 107.014 0 0 0
-293.049 -218.672 107.038 0 0 0
-293.04 -218.673 107.022 0 0 0
-293.05 -218.677 107.04 0 0 0
-293.045 -218.669 107.035 0 0 0
-293.051 -218.673 107.045 0 0 0
-293.038 -218.679 107.017 0 0 0
-293.049 -218.673 107.037 0 0 0
-293.045 -218.665 107.022 0 0 0
-293.044 -218.663 107.023 0 0 0
-293.051 -218.676 107.026 0 0 0
-293.057 -218.669 107.04 0 0 0
-293.038 -218.682 107.031 0 0 0
-293.057 -218.668 107.042 0 0 0
-293.05 -218.672 107.033 0 0 0
-293.041 -218.669 107.018 0 0 0
-293.064 -218.678 107.036 0 0 0
-293.053 -218.67 107.036 0 0 0
-293.044 -218.672 107.036 0 0 0
-293.06 -218.652 107.031 0 0 0
-293.048 -218.674 107.034 0 0 0
-293.048 -218.676 107.036 0 0 0
-293.046 -218.673 107.028 0 0 0
-293.055 -218.665 107.037 0 0 0
-293.053 -218.673 107.044 0 0 0
-293.051 -218.7 107.058 0 0 0
-293.039 -218.683 107.03 0 0 0
-293.042 -218.665 107.014 0 0 0
-293.049 -218.68 107.029 0 0 0
-293.055 -218.67 107.032 0 0 0
-293.06 -218.661 107.037 0 0 0
-293.055 -218.664 107.043 0 0 0
-293.036 -218.679 107.022 0 0 0
-293.052 -218.667 107.042 0 0 0
-293.055 -218.679 107.036 0 0 0
-293.055 -218.682 107.047 0 0 0
-293.041 -218.669 107.022 0 0 0
-293.039 -218.673 107.03 0 0 0
-293.072 -218.675 107.061 0 0 0
-293.041 -218.673 107.022 0 0 0
-293.038 -218.672 107.022 0 0 0
-293.044 -218.684 107.04 0 0 0
-293.05 -218.668 107.036 0 0 0
-293.056 -218.666 107.04 0 0 0
-293.067 -218.664 107.045 0 0 0
-293.052 -218.664 107.025 0 0 0
-293.068 -218.67 107.061 0 0 0
-293.044 -218.673 107.031 0 0 0
-293.06 -218.666 107.033 0 0 0
-293.053 -218.678 107.045 0 0 0
-293.043 -218.674 107.028 0 0 0
-293.044 -218.666 107.015 0 0 0
-293.041 -218.666 107.024 0 0 0
-293.047 -218.681 107.04 0 0 0
-293.052 -218.682 107.037 0 0 0
-293.06 -218.67 107.04 0 0 0
-293.042 -218.672 107.032 0 0 0
-293.046 -218.669 107.028 0 0 0
-293.043 -218.663 107.024 0 0 0
-293.049 -218.679 107.04 0 0 0
-293.042 -218.682 107.029 0 0 0
-293.058 -218.679 107.043 0 0 0
-293.045 -218.686 107.04 0 0 0
-293.051 -218.673 107.032 0 0 0
-293.074 -218.665 107.04 0 0 0
-293.05 -218.677 107.032 0 0 0
-293.053 -218.66 107.031 0 0 0
-293.052 -218.674 107.04 0 0 0
-293.05 -218.671 107.025 0 0 0
-293.053 -218.674 107.044 0 0 0
-293.047 -218.678 107.032 0 0 0
-293.035 -218.67 107.018 0 0 0
-293.046 -218.668 107.034 0 0 0
-293.047 -218.68 107.034 0 0 0
-293.049 -218.676 107.038 0 0 0
-293.048 -218.677 107.038 0 0 0
-293.044 -218.677 107.022 0 0 0
-293.055 -218.668 107.033 0 0 0
-293.05 -218.653 107.024 0 0 0
-293.056 -218.665 107.028 0 0 0
-293.047 -218.664 107.025 0 0 0
-293.055 -218.672 107.031 0 0 0
-293.038 -218.657 107.013 0 0 0
-293.065 -218.664 107.049 0 0 0
-293.057 -218.661 107.04 0 0 0
-293.056 -218.662 107.038 0 0 0
-293.042 -218.673 107.02 0 0 0
-293.046 -218.668 107.019 0 0 0
-293.07 -218.666 107.05 0 0 0
-293.049 -218.673 107.025 0 0 0
-293.048 -218.66 107.034 0 0 0
-293.051 -218.665 107.031 0 0 0
-293.051 -218.671 107.037 0 0 0
-293.052 -218.679 107.037 0 0 0
-293.05 -218.667 107.031 0 0 0
-293.036 -218.664 107.022 0 0 0
-293.052 -218.662 107.023 0 0 0
-293.036 -218.673 107.019 0 0 0
-293.036 -218.656 107.008 0 0 0
-293.037 -218.679 107.029 0 0 0
-293.051 -218.663 107.034 0 0 0
-293.053 -218.676 107.044 0 0 0
-293.042 -218.674 107.018 0 0 0
-293.056 -218.658 107.047 0 0 0
-293.062 -218.663 107.044 0 0 0
-293.037 -218.677 107.016 0 0 0
-293.044 -218.66 107.02 0 0 0
-293.041 -218.687 107.034 0 0 0
-293.048 -218.677 107.039 0 0 0
-293.057 -218.67 107.042 0 0 0
-293.046 -218.676 107.029 0 0 0
-293.037 -218.679 107.025 0 0 0
-293.04 -218.673 107.029 0 0 0
-293.057 -218.666 107.036 0 0 0
-293.051 -218.673 107.048 0 0 0
-293.056 -218.665 107.035 0 0 0
-293.041 -218.666 107.016 0 0 0
-293.047 -218.669 107.032 0 0 0
-293.044 -218.669 107.035 0 0 0
-293.043 -218.679 107.03 0 0 0
-293.044 -218.671 107.031 0 0 0
-293.047 -218.677 107.028 0 0 0
-293.054 -218.671 107.035 0 0 0
-293.048 -218.679 107.038 0 0 0
-293.051 -218.672 107.024 0 0 0
-293.054 -218.672 107.039 0 0 0
-293.045 -218.673 107.031 0 0 0
-293.046 -218.674 107.029 0 0 0
-293.047 -218.675 107.034 0 0 0
-293.06 -218.667 107.037 0 0 0
-293.053 -218.668 107.042 0 0 0
-293.052 -218.677 107.031 0 0 0
-293.039 -218.67 107.012 0 0 0
-293.045 -218.67 107.026 0 0 0
-293.047 -218.673 107.018 0 0 0
-293.055 -218.664 107.037 0 0 0
-293.036 -218.678 107.022 0 0 0
-293.059 -218.672 107.04 0 0 0
-293.054 -218.669 107.036 0 0 0
-293.055 -218.658 107.025 0 0 0
-293.05 -218.66 107.029 0 0 0
-293.034 -218.678 107.025 0 0 0
-293.052 -218.661 107.033 0 0 0
-293.042 -218.672 107.024 0 0 0
-293.047 -218.675 107.037 0 0 0
-293.044 -218.68 107.037 0 0 0
-293.04 -218.682 107.035 0 0 0
-293.043 -218.669 107.021 0 0 0
-293.056 -218.67 107.03 0 0 0
-293.044 -218.659 107.015 0 0 0
-293.052 -218.673 107.023 0 0 0
-293.047 -218.679 107.04 0 0 0
-293.06 -218.665 107.034 0 0 0
-293.043 -218.681 107.041 0 0 0
-293.047 -218.663 107.022 0 0 0
-293.043 -218.667 107.02 0 0 0
-293.037 -218.681 107.039 0 0 0
-293.063 -218.66 107.043 0 0 0
-293.043 -218.676 107.035 0 0 0
-293.042 -218.674 107.037 0 0 0
-293.053 -218.677 107.043 0 0 0
-293.046 -218.667 107.027 0 0 0
-293.051 -218.677 107.035 0 0 0
-293.055 -218.665 107.04 0 0 0
-293.046 -218.681 107.043 0 0 0
-293.054 -218.661 107.036 0 0 0
-293.04 -218.669 107.031 0 0 0
-293.046 -218.667 107.037 0 0 0
-293.053 -218.663 107.036 0 0 0
-293.051 -218.679 107.045 0 0 0
-293.046 -218.68 107.039 0 0 0
-293.05 -218.675 107.036 0 0 0
-293.058 -218.668 107.046 0 0 0
-293.069 -218.676 107.059 0 0 0
-293.055 -218.683 107.051 0 0 0
-293.053 -218.666 107.026 0 0 0
-293.055 -218.682 107.04 0 0 0
-293.051 -218.669 107.029 0 0 0
-293.055 -218.672 107.04 0 0 0
-293.051 -218.685 107.046 0 0 0
-293.049 -218.682 107.03 0 0 0
-293.048 -218.669 107.038 0 0 0
-293.05 -218.669 107.031 0 0 0
-293.064 -218.673 107.058 0 0 0
-293.062 -218.672 107.052 0 0 0
-293.042 -218.676 107.025 0 0 0
-293.051 -218.656 107.026 0 0 0
-293.037 -218.669 107.032 0 0 0
-293.064 -218.673 107.047 0 0 0
-293.034 -218.673 107.028 0 0 0
-293.045 -218.671 107.037 0 0 0
-293.059 -218.66 107.034 0 0 0
-293.054 -218.669 107.039 0 0 0
-293.051 -218.666 107.025 0 0 0
-293.063 -218.664 107.051 0 0 0
-293.045 -218.677 107.029 0 0 0
-293.046 -218.678 107.038 0 0 0
-293.049 -218.672 107.028 0 0 0
-293.041 -218.671 107.022 0 0 0
-293.044 -218.675 107.041 0 0 0
-293.049 -218.678 107.04 0 0 0
-293.056 -218.672 107.04 0 0 0
-293.049 -218.676 107.048 0 0 0
-293.053 -218.677 107.044 0 0 0
-293.053 -218.669 107.036 0 0 0
-293.064 -218.668 107.046 0 0 0
-293.057 -218.671 107.038 0 0 0
-293.048 -218.674 107.03 0 0 0
-293.06 -218.667 107.042 0 0 0
-293.052 -218.686 107.038 0 0 0
-293.045 -218.683 107.037 0 0 0
-293.049 -218.682 107.031 0 0 0
-293.032 -218.68 107.011 0 0 0
-293.057 -218.672 107.046 0 0 0
-293.055 -218.686 107.053 0 0 0
-293.046 -218.686 107.029 0 0 0
-293.051 -218.684 107.041 0 0 0
-293.048 -218.685 107.036 0 0 0
-293.052 -218.678 107.048 0 0 0
-293.057 -218.674 107.041 0 0 0
-293.046 -218.681 107.036 0 0 0
-293.045 -218.675 107.031 0 0 0
-293.049 -218.673 107.033 0 0 0
-293.053 -218.676 107.048 0 0 0
-293.041 -218.676 107.041 0 0 0
-293.054 -218.675 107.034 0 0 0
-293.048 -218.667 107.03 0 0 0
-293.057 -218.67 107.034 0 0 0
-293.036 -218.663 107.014 0 0 0
-293.054 -218.685 107.054 0 0 0
-293.05 -218.678 107.034 0 0 0
-293.055 -218.669 107.037 0 0 0
-293.044 -218.668 107.026 0 0 0
-293.044 -218.666 107.03 0 0 0
-293.037 -218.671 107.027 0 0 0
-293.068 -218.656 107.041 0 0 0
-293.045 -218.666 107.038 0 0 0
-293.053 -218.666 107.031 0 0 0
-293.055 -218.666 107.044 0 0 0
-293.054 -218.676 107.032 0 0 0
-293.057 -218.67 107.039 0 0 0
-293.05 -218.677 107.042 0 0 0
-293.047 -218.683 107.034 0 0 0
-293.045 -218.677 107.034 0 0 0
-293.092 -218.671 107.043 0 0 0
-295.067 -218.612 107.009 0 0 0
-302.87 -218.461 107.245 0 0 0
-312.872 -218.248 107.167 0 0 0
-324.036 -218.1 106.996 0 0 0
-335.196 -217.969 106.972 0 0 0
-345.991 -218.133 107.178 0 0 0
-350.262 -218.886 107.205 0 0 0
-348.5 -220.257 107.688 0 0 0
-340.473 -222.403 108.486 0 0 0
-329.858 -224.886 109.279 0 0 0
-324.932 -227.412 110.119 0 0 0
-326.214 -229.846 111.012 0 0 0
-333.546 -232.288 111.701 0 0 0
-344.78 -234.861 112.624 0 0 0
-350.375 -237.237 113.377 0 0 0
-349.818 -239.627 114.032 0 0 0
-343.235 -242.051 114.781 0 0 0
-332.118 -244.532 115.585 0 0 0
-325.775 -247.04 116.633 0 0 0
-325.534 -249.495 117.35 0 0 0
-331.59 -251.957 118.346 0 0 0
-342.74 -254.498 119.045 0 0 0
-349.751 -256.889 119.682 0 0 0
-350.711 -259.259 120.566 0 0 0
-345.564 -261.728 121.352 0 0 0
-334.599 -264.252 122.069 0 0 0
-326.822 -266.646 123.095 0 0 0
